ply
format ascii 1.0
comment Created by CloudCompare v2.12.4 (Kyiv)
comment Created 2025-05-21T17:12:29
obj_info Generated by CloudCompare!
element vertex 616
property float x
property float y
property float z
property uchar red
property uchar green
property uchar blue
property float scalar_attributions
property float scalar_class
property float scalar_ground_truth
property float scalar_curvature
end_header
0.444667 -0.053000 0.163000 29 29 29 -0.008291 8.000000 8.000000 0.009389 
0.264000 0.236000 0.251333 202 205 198 0.128947 7.000000 12.000000 0.004976 
0.292000 -0.060000 0.212000 157 162 140 -0.069206 8.000000 8.000000 0.011057 
0.305667 -0.864333 0.002667 172 174 153 -0.016127 1.000000 1.000000 0.007226 
-0.228667 -0.241333 0.030333 24 20 21 -0.010190 12.000000 12.000000 0.015348 
-0.220667 -0.242333 0.029000 105 108 91 -0.037504 1.000000 12.000000 0.011134 
0.219667 -0.071667 0.908333 118 113 91 -0.009707 0.000000 0.000000 0.001181 
0.012333 -0.398000 0.324667 131 127 115 -0.045705 2.000000 12.000000 0.013056 
-0.302333 0.331333 0.806333 142 135 125 -0.017206 2.000000 2.000000 0.002566 
0.145000 0.024000 0.188000 58 60 49 -0.006352 12.000000 9.000000 0.018958 
-0.309333 0.114000 0.293000 141 108 57 0.034842 6.000000 6.000000 0.004365 
0.197667 -0.880667 0.001667 150 155 123 -0.013983 1.000000 1.000000 0.000132 
-0.484000 0.235000 0.700333 42 41 37 -0.004533 6.000000 6.000000 0.016046 
0.341667 -0.576333 0.001333 173 177 154 -0.045006 1.000000 1.000000 0.000019 
0.552333 -0.408667 0.502667 141 109 52 -0.024013 10.000000 6.000000 0.007541 
0.376667 0.264000 0.028000 20 20 20 -0.018945 1.000000 9.000000 0.018512 
0.429000 -0.325667 0.687667 73 54 37 -0.004510 10.000000 10.000000 0.006989 
0.364000 0.329667 0.575000 40 43 88 -0.003335 12.000000 12.000000 0.000297 
0.045333 0.113000 0.246000 111 104 96 -0.010696 12.000000 9.000000 0.013645 
-0.349333 -0.667667 0.050000 9 9 9 0.000846 12.000000 12.000000 0.008369 
0.461667 -0.473333 0.661333 73 48 26 0.009147 10.000000 10.000000 0.009268 
0.085667 0.111333 0.002000 164 157 113 -0.061188 1.000000 1.000000 0.003354 
-0.382667 0.247000 -0.000667 48 48 38 -0.024750 1.000000 1.000000 0.003737 
0.212333 -0.137667 -0.000333 165 165 139 -0.028588 1.000000 1.000000 0.000762 
0.024000 -0.288000 0.574000 196 190 168 0.011082 12.000000 12.000000 0.010562 
0.477000 0.007333 0.154000 220 221 207 -0.140061 8.000000 8.000000 0.006603 
-0.268000 -0.122333 0.000667 110 109 79 -0.028501 1.000000 1.000000 0.003188 
-0.442333 0.324667 0.409667 162 163 155 0.081565 11.000000 11.000000 0.012844 
0.897333 0.341667 0.012333 17 16 11 -0.009799 1.000000 8.000000 0.017405 
0.552000 -0.478667 0.456333 78 69 52 -0.000037 10.000000 10.000000 0.010453 
-0.342667 -0.642667 0.000000 23 22 17 -0.022754 1.000000 1.000000 0.012090 
0.473000 -0.780000 0.232333 94 65 35 -0.034593 10.000000 10.000000 0.017543 
0.386667 -0.294000 0.000000 88 90 76 -0.067984 1.000000 1.000000 0.001345 
0.484000 -0.483667 0.195333 105 79 54 -0.037025 10.000000 10.000000 0.015225 
-0.862000 0.315667 0.001000 83 81 68 -0.016658 1.000000 1.000000 0.003604 
-0.424000 0.223333 0.008667 153 114 55 -0.030757 6.000000 6.000000 0.010338 
0.728000 -0.104333 0.000000 159 158 130 -0.016294 1.000000 1.000000 0.008460 
0.347333 0.566667 0.193667 252 126 104 -0.038360 9.000000 9.000000 0.007153 
-0.129333 -0.569333 0.001667 160 164 131 -0.021732 1.000000 1.000000 0.000279 
0.724667 0.039000 0.000667 144 146 122 -0.011734 1.000000 1.000000 0.007314 
0.613000 0.154000 0.354667 38 39 44 0.035139 12.000000 12.000000 0.000577 
0.137333 0.498333 0.608667 195 197 176 -0.062610 12.000000 5.000000 0.000194 
0.545667 -0.253000 0.000667 64 58 42 -0.039333 1.000000 1.000000 0.001125 
-0.462333 0.131000 0.846667 120 114 100 -0.005862 2.000000 12.000000 0.011473 
0.490667 -0.458667 0.210333 112 83 39 -0.025767 10.000000 10.000000 0.009553 
-0.322667 0.332333 0.754333 154 146 135 -0.023420 2.000000 2.000000 0.001823 
0.699000 0.276333 0.000000 30 29 24 -0.024642 1.000000 1.000000 0.008864 
0.044333 -0.394000 0.385000 107 90 83 0.012146 12.000000 12.000000 0.023035 
0.486667 -0.741333 0.139667 204 177 132 -0.043791 10.000000 10.000000 0.011722 
0.895333 -0.320333 0.168000 164 110 46 -0.072646 10.000000 10.000000 0.017465 
0.411000 0.715667 0.220667 189 186 177 0.037772 4.000000 2.000000 0.005946 
-0.454000 0.252667 0.697333 59 50 33 -0.005352 6.000000 6.000000 0.009243 
-0.410000 0.212000 0.444333 149 115 44 -0.005760 6.000000 6.000000 0.008288 
0.725000 0.330000 0.481667 189 182 153 -0.006595 2.000000 2.000000 0.000314 
0.545667 -0.730667 0.281000 40 31 34 -0.010533 10.000000 10.000000 0.010264 
-0.156000 -0.419333 0.292333 118 94 66 0.061882 12.000000 12.000000 0.010144 
0.490667 0.459667 0.073667 15 15 13 0.003124 12.000000 9.000000 0.011923 
-0.076000 0.084333 0.249000 134 130 103 -0.086439 12.000000 12.000000 0.016163 
-0.169333 0.114667 0.904000 97 92 86 -0.002721 0.000000 0.000000 0.000284 
-0.309000 0.113667 0.091667 161 122 55 -0.055643 6.000000 6.000000 0.002702 
0.353000 0.642000 0.188000 54 52 40 0.012918 12.000000 9.000000 0.008210 
0.024333 0.086333 0.184667 61 61 53 -0.005403 12.000000 9.000000 0.010146 
0.063667 0.343667 0.434333 210 216 204 -0.014648 2.000000 5.000000 0.012250 
0.545333 -0.678333 0.160667 93 76 58 -0.054002 10.000000 10.000000 0.019326 
-0.463000 0.323333 0.066667 168 157 139 -0.207972 2.000000 2.000000 0.024035 
0.025000 -0.310667 0.908000 87 82 86 -0.009482 0.000000 0.000000 0.004663 
0.133000 -0.340333 0.780667 111 106 87 0.010934 12.000000 12.000000 0.008776 
-0.002667 -0.818000 0.193667 15 15 15 0.000751 8.000000 8.000000 0.009411 
-0.356000 -0.205667 0.152667 120 91 49 -0.068000 7.000000 7.000000 0.003499 
0.458667 -0.358000 0.372000 80 66 40 0.067192 10.000000 10.000000 0.021357 
0.115333 0.074667 0.077333 77 80 71 0.047613 12.000000 7.000000 0.011243 
0.562000 -0.702000 0.408000 209 202 184 0.066499 10.000000 10.000000 0.018184 
0.572333 -0.409667 0.036667 121 91 41 -0.138368 10.000000 6.000000 0.007189 
-0.809000 0.386333 0.105667 145 139 103 -0.086967 2.000000 2.000000 0.012339 
0.218333 0.195000 0.910667 83 84 79 -0.006846 0.000000 0.000000 0.003392 
-0.402667 0.097667 0.764333 165 158 132 -0.012002 2.000000 12.000000 0.010654 
0.111000 0.443667 0.550000 199 205 195 0.025110 2.000000 5.000000 0.000126 
0.486333 -0.613000 0.357333 45 27 13 -0.009779 10.000000 10.000000 0.012717 
-0.441000 -0.233667 0.254333 223 216 187 -0.070730 7.000000 7.000000 0.013612 
0.803667 -0.375000 0.197000 72 53 36 -0.054434 10.000000 10.000000 0.017070 
0.111667 -0.312000 0.908333 88 85 94 -0.010378 0.000000 0.000000 0.001194 
0.626667 -0.318000 0.000333 138 142 107 -0.046205 1.000000 1.000000 0.007018 
0.092000 0.400000 0.333333 198 202 188 0.089178 2.000000 5.000000 0.003976 
-0.461333 -0.643000 0.489333 182 150 109 0.065835 12.000000 12.000000 0.004992 
-0.388000 0.189667 0.050333 160 121 46 -0.045248 6.000000 6.000000 0.001078 
0.224000 0.670000 0.552000 176 179 150 -0.106483 12.000000 5.000000 0.001007 
-0.307333 -0.798000 0.031333 28 24 15 -0.006845 7.000000 7.000000 0.015722 
0.270667 0.210333 0.000333 39 38 34 -0.008197 1.000000 1.000000 0.001620 
0.518000 -0.615667 0.360000 116 108 97 -0.031984 10.000000 10.000000 0.018130 
0.588333 -0.413000 0.463333 77 62 41 -0.015075 10.000000 10.000000 0.008119 
-0.071667 0.040667 0.172667 187 184 169 -0.061721 2.000000 2.000000 0.008917 
0.018000 -0.229333 0.518667 182 180 167 -0.013112 12.000000 12.000000 0.011634 
-0.592000 -0.702667 0.025333 154 122 71 -0.015819 6.000000 6.000000 0.006895 
-0.649000 -0.706000 0.173000 166 131 73 0.005764 6.000000 6.000000 0.002719 
0.151667 -0.227000 0.926000 253 254 255 -0.040837 12.000000 12.000000 0.014396 
0.464000 -0.319333 0.183667 136 103 36 -0.074486 10.000000 10.000000 0.003771 
0.539000 -0.094333 0.000333 156 155 125 0.258171 1.000000 1.000000 0.002167 
0.386000 0.038333 0.909000 172 171 166 -0.004505 12.000000 0.000000 0.003241 
0.388667 -0.188333 0.381333 61 45 32 -0.002687 12.000000 8.000000 0.010471 
-0.968667 0.055000 0.000667 92 91 71 -0.013716 1.000000 1.000000 0.002838 
0.325000 0.045667 0.177000 203 141 92 -0.076764 8.000000 8.000000 0.007532 
0.471000 0.225333 0.247333 147 118 84 0.025244 7.000000 7.000000 0.012832 
-0.462667 -0.378667 0.077333 26 28 25 -0.034361 7.000000 2.000000 0.011028 
0.392333 -0.166000 0.313000 174 172 147 -0.045586 12.000000 8.000000 0.006913 
0.317333 0.003000 0.003333 113 111 90 -0.146126 1.000000 1.000000 0.011800 
-0.402667 0.202667 0.123333 162 121 42 -0.053725 6.000000 6.000000 0.005653 
0.830667 0.262333 0.255333 26 22 21 0.006112 8.000000 12.000000 0.010081 
0.086333 -0.176000 0.899667 254 254 254 -0.027550 12.000000 12.000000 0.009752 
0.704667 0.357000 0.166333 108 109 95 -0.046114 7.000000 7.000000 0.004262 
0.605667 -0.406333 0.503667 142 110 61 -0.014009 10.000000 6.000000 0.009443 
0.424667 -0.319667 0.302667 212 212 200 -0.030977 10.000000 10.000000 0.005591 
0.003000 0.221333 0.364333 198 201 184 -0.009796 2.000000 5.000000 0.003259 
0.604333 -0.342333 0.604333 110 76 39 -0.019715 10.000000 10.000000 0.009652 
-0.422667 0.042333 0.823667 160 153 137 0.008021 2.000000 12.000000 0.016716 
0.477333 -0.479667 0.652333 107 79 39 -0.000596 10.000000 10.000000 0.011255 
0.013000 -0.102667 0.020333 63 87 73 -0.075583 2.000000 2.000000 0.021610 
0.544000 -0.456667 0.691667 83 62 33 0.002628 10.000000 10.000000 0.011367 
0.619000 0.676333 0.258333 123 116 110 -0.051441 12.000000 10.000000 0.011955 
0.257333 0.043333 0.905000 115 109 95 -0.011078 0.000000 0.000000 0.003191 
0.197333 -0.865333 0.001667 156 159 128 -0.015762 1.000000 1.000000 0.000140 
-0.115333 -0.816333 0.260333 149 135 106 0.042288 8.000000 8.000000 0.016189 
0.057667 -0.924667 0.138333 148 152 135 -0.049159 8.000000 8.000000 0.014127 
0.506667 -0.575667 0.174333 181 172 155 -0.061442 10.000000 10.000000 0.011459 
0.764333 -0.422667 0.422333 114 101 84 -0.030122 10.000000 11.000000 0.012363 
0.646000 0.331000 0.343667 194 191 172 -0.021446 2.000000 2.000000 0.003946 
-0.376000 -0.512667 0.254667 225 224 229 0.017896 7.000000 7.000000 0.010916 
0.512000 -0.753333 0.054000 57 48 31 -0.019088 10.000000 10.000000 0.011429 
-0.814333 -0.016667 0.452333 182 178 149 -0.034633 2.000000 2.000000 0.009417 
0.511333 0.127667 -0.001333 60 57 50 -0.037349 1.000000 1.000000 0.003411 
0.586000 0.121333 0.248667 179 145 82 -0.010582 7.000000 7.000000 0.009670 
0.310667 -0.048667 0.905667 124 116 103 -0.011928 0.000000 0.000000 0.001325 
0.366000 0.667333 0.189000 167 165 150 -0.034086 9.000000 9.000000 0.010794 
-0.202000 -0.877333 0.016000 14 11 6 -0.006494 10.000000 10.000000 0.014460 
0.404667 0.293000 0.070333 18 18 16 -0.010199 9.000000 9.000000 0.003996 
0.311333 -0.324667 0.563333 67 50 34 -0.011714 10.000000 10.000000 0.006439 
0.512000 -0.346000 0.139000 51 44 25 -0.029638 10.000000 10.000000 0.019982 
0.470667 -0.631667 0.137667 202 182 149 -0.084038 10.000000 10.000000 0.015201 
0.467000 -0.761667 0.308667 188 151 107 -0.018852 10.000000 10.000000 0.013080 
0.818000 -0.358333 0.248000 182 147 105 -0.081877 10.000000 10.000000 0.008425 
-0.031000 -0.822667 0.144000 14 14 14 0.001682 8.000000 8.000000 0.014639 
0.006333 -0.271333 0.864000 148 137 119 -0.016273 2.000000 2.000000 0.005013 
0.004667 -0.386000 0.700000 169 160 151 -0.021557 2.000000 2.000000 0.007605 
0.637333 -0.404667 0.121333 119 97 50 -0.098114 6.000000 6.000000 0.005160 
0.006667 -0.212333 0.780667 174 169 139 -0.006269 2.000000 2.000000 0.000251 
0.554667 -0.365000 0.694333 4 6 5 0.001000 10.000000 10.000000 0.014097 
0.571333 -0.332000 0.538333 213 223 224 0.060301 10.000000 10.000000 0.021376 
-0.460667 0.319333 0.641667 150 147 130 -0.026276 2.000000 2.000000 0.009548 
0.375667 -0.099000 0.200333 205 207 194 0.238700 12.000000 8.000000 0.007986 
0.926000 -0.339000 0.056333 92 80 54 -0.021722 10.000000 10.000000 0.009259 
-0.075333 0.033667 0.192333 190 187 170 -0.091898 2.000000 2.000000 0.008675 
-0.324667 0.132000 0.398000 177 133 60 0.015345 6.000000 6.000000 0.001403 
0.477333 -0.257000 0.001000 179 181 157 0.038845 1.000000 1.000000 0.000928 
-0.466333 -0.105000 0.126333 194 192 180 -0.070289 2.000000 2.000000 0.002324 
0.466667 -0.361333 0.311000 65 53 39 -0.028998 10.000000 10.000000 0.020730 
-0.042667 0.133333 0.569333 181 184 165 -0.024302 2.000000 5.000000 0.000251 
-0.013667 0.326000 0.483667 180 187 171 -0.031319 11.000000 11.000000 0.003705 
0.327000 0.319667 -0.000333 24 23 19 -0.013826 1.000000 1.000000 0.011195 
-0.002333 0.266333 0.001000 123 119 81 -0.041916 1.000000 1.000000 0.006840 
-0.466333 -0.028000 0.191667 129 144 125 -0.053756 6.000000 2.000000 0.001402 
-0.255000 0.226667 0.180000 41 48 58 -0.008316 12.000000 12.000000 0.026503 
0.790667 0.123000 0.140333 188 188 180 -0.097146 12.000000 12.000000 0.002908 
0.749333 -0.358667 0.341667 132 98 50 -0.064306 10.000000 10.000000 0.013218 
0.191333 -0.114667 0.907667 126 118 95 -0.013471 0.000000 0.000000 0.001783 
0.568333 -0.614333 0.315000 68 55 38 -0.020805 10.000000 10.000000 0.015508 
0.165000 -0.225667 0.909667 150 150 152 -0.012816 0.000000 12.000000 0.006372 
0.268000 0.051000 0.905000 119 111 98 -0.007514 0.000000 0.000000 0.004298 
0.250667 0.127000 0.911333 80 78 81 -0.008346 0.000000 0.000000 0.003165 
0.017000 0.327667 0.575000 177 178 164 -0.013298 2.000000 11.000000 0.016569 
0.378333 0.131000 -0.000333 44 41 36 -0.041439 1.000000 1.000000 0.001950 
0.454667 -0.315000 0.115000 127 108 75 -0.054728 10.000000 10.000000 0.005169 
-0.304667 -0.248000 0.357333 69 69 69 0.013479 12.000000 12.000000 0.012645 
0.031000 -0.520333 0.000667 148 151 120 -0.033435 1.000000 1.000000 0.000171 
0.411667 -0.098333 0.026333 18 17 13 -0.085561 8.000000 8.000000 0.010672 
0.008000 -0.212667 0.242000 134 124 99 -0.029285 12.000000 2.000000 0.019135 
0.354667 0.465000 0.148333 238 124 100 0.014304 9.000000 9.000000 0.004387 
-0.029333 0.159333 0.783667 131 133 119 -0.004942 2.000000 5.000000 0.003030 
-0.215000 -0.274333 0.131667 30 30 28 0.007096 12.000000 12.000000 0.006072 
0.644333 -0.322000 0.526333 185 140 83 -0.011435 10.000000 10.000000 0.007596 
0.258000 0.383667 0.133667 20 20 20 -0.001793 9.000000 9.000000 0.009420 
-0.129000 -0.747333 0.002000 151 153 114 -0.021587 1.000000 1.000000 0.001451 
-0.464000 -0.118667 0.064667 115 99 74 -0.118913 2.000000 2.000000 0.006119 
0.064333 -0.958333 0.003333 157 157 121 -0.003331 1.000000 1.000000 0.001967 
0.004000 0.327333 0.014333 73 104 88 -0.035768 2.000000 2.000000 0.012632 
-0.077000 0.028333 0.137667 180 180 168 -0.053686 2.000000 2.000000 0.009451 
0.154333 0.533333 0.655667 125 126 108 -0.067187 12.000000 5.000000 0.000354 
0.411333 -0.795000 0.228667 145 109 57 -0.004252 12.000000 7.000000 0.005834 
-0.448333 0.171667 0.753000 90 79 57 0.005775 12.000000 12.000000 0.010133 
0.833000 0.330333 0.440000 188 184 159 0.021252 2.000000 2.000000 0.014019 
-0.456000 -0.276667 0.844667 165 159 145 -0.040555 2.000000 12.000000 0.036830 
0.065333 -0.170333 0.906667 131 124 98 -0.010507 0.000000 0.000000 0.008229 
0.165000 0.553333 0.600333 192 196 171 -0.058496 12.000000 5.000000 0.000217 
0.838667 0.198333 0.290667 52 48 47 0.060428 12.000000 12.000000 0.003731 
-0.267333 -0.024333 0.000667 155 159 124 -0.029593 1.000000 1.000000 0.002030 
0.465000 -0.016667 0.167333 19 20 15 0.012999 8.000000 8.000000 0.010432 
-0.191667 -0.073667 0.000333 154 158 125 -0.038026 1.000000 1.000000 0.000189 
0.791000 0.270667 0.224333 29 25 24 0.007479 8.000000 12.000000 0.017230 
0.491667 -0.173000 0.206333 141 143 103 0.022802 8.000000 8.000000 0.014406 
-0.142333 -0.158667 -0.000333 156 159 128 -0.005091 1.000000 1.000000 0.002411 
0.381333 0.237000 0.078000 19 19 17 -0.005741 12.000000 9.000000 0.007418 
0.517333 -0.173667 0.000333 166 164 139 -0.021076 1.000000 1.000000 0.000643 
0.088667 -0.265667 0.206667 117 128 134 0.050865 10.000000 12.000000 0.012447 
0.410667 -0.323667 0.033000 141 130 112 -0.049649 1.000000 10.000000 0.021675 
0.460667 -0.361000 0.653667 196 183 190 0.037071 10.000000 10.000000 0.013516 
0.617667 0.596000 0.480000 213 204 173 -0.030245 12.000000 10.000000 0.017415 
-0.409000 -0.754667 0.127333 10 10 10 0.003042 12.000000 12.000000 0.011739 
0.075667 0.340333 0.853667 150 145 125 -0.014994 2.000000 2.000000 0.006936 
0.291000 0.519333 0.200000 50 50 48 -0.004280 9.000000 9.000000 0.004338 
-0.041667 0.327000 0.703667 153 153 141 -0.028281 11.000000 11.000000 0.005818 
-0.262667 -0.015000 0.904667 108 102 88 -0.014524 0.000000 0.000000 0.000197 
-0.406333 -0.219000 0.782333 186 182 170 -0.037724 12.000000 12.000000 0.011671 
0.281667 -0.049000 0.225000 167 172 149 -0.040881 8.000000 8.000000 0.008927 
-0.969333 -0.005333 0.000333 87 88 70 -0.024429 1.000000 1.000000 0.006802 
-0.340667 0.325667 0.501333 164 164 156 -0.026648 11.000000 11.000000 0.004027 
0.351000 0.062667 0.001333 111 118 85 -0.048040 1.000000 1.000000 0.005816 
-0.406333 -0.330000 0.762667 202 202 190 -0.031735 12.000000 12.000000 0.014709 
-0.844333 -0.019667 0.136000 172 166 130 -0.069020 2.000000 2.000000 0.010510 
-0.406000 -0.413333 0.002000 14 14 12 -0.011498 1.000000 1.000000 0.012086 
0.184000 0.190667 0.910333 75 74 69 -0.006828 0.000000 0.000000 0.003255 
-0.452333 0.251333 0.201000 169 129 42 -0.027681 6.000000 6.000000 0.008565 
-0.028667 -0.418333 0.000667 171 170 152 -0.005987 1.000000 1.000000 0.000103 
-0.276000 -0.789333 0.002667 103 102 81 -0.032973 1.000000 1.000000 0.015097 
0.364000 0.331000 0.809000 156 148 145 -0.021470 12.000000 12.000000 0.003505 
-0.457667 -0.335000 0.367000 50 50 48 0.001623 2.000000 12.000000 0.024592 
0.547000 0.105333 0.185333 13 13 13 0.002310 12.000000 12.000000 0.013052 
-0.463667 -0.766333 0.339000 208 210 197 0.033218 2.000000 2.000000 0.008213 
0.277333 0.773333 0.253667 195 193 170 -0.084376 4.000000 2.000000 0.008268 
-0.456000 -0.690000 0.079667 28 29 24 0.000520 12.000000 12.000000 0.008322 
0.057667 0.303667 0.853667 148 142 118 -0.014741 2.000000 2.000000 0.008022 
0.593000 0.704667 0.314667 185 184 166 -0.026979 2.000000 2.000000 0.004107 
0.811000 0.417667 0.004333 53 49 40 -0.007177 1.000000 1.000000 0.025186 
0.780667 0.502667 0.166667 81 81 73 -0.017977 12.000000 7.000000 0.016587 
0.845333 -0.040667 0.061000 210 208 195 0.053268 2.000000 2.000000 0.000699 
0.724000 -0.399667 0.044000 125 106 64 -0.031013 6.000000 6.000000 0.011012 
-0.379667 -0.293000 0.276667 42 42 34 0.009902 12.000000 12.000000 0.013870 
0.072667 -0.522667 0.001000 166 166 140 -0.034070 1.000000 1.000000 0.000114 
0.455333 0.414000 0.046000 19 19 17 -0.008705 12.000000 9.000000 0.013851 
0.845333 -0.018667 0.262000 213 211 196 -0.071627 2.000000 2.000000 0.005134 
0.566667 0.327000 0.684667 56 89 98 -0.003631 12.000000 12.000000 0.000670 
-0.035333 -0.330000 0.907000 81 79 82 -0.006387 0.000000 0.000000 0.006626 
-0.042667 0.075333 0.129333 49 51 40 -0.027362 12.000000 12.000000 0.012215 
0.598333 0.159333 0.148000 87 87 75 -0.021462 12.000000 7.000000 0.015219 
0.370667 0.533667 0.184667 228 107 80 -0.029652 9.000000 9.000000 0.002931 
0.470000 -0.656000 0.135000 213 181 132 -0.033762 10.000000 10.000000 0.015281 
-0.443667 -0.781333 0.312000 122 136 185 0.009861 12.000000 12.000000 0.005157 
0.010000 -0.105333 0.325000 186 188 164 0.048744 2.000000 2.000000 0.010749 
-0.448333 0.326333 0.143333 184 178 152 -0.061157 2.000000 2.000000 0.010582 
-0.255667 0.065667 0.325000 188 161 106 -0.031818 6.000000 6.000000 0.010908 
0.845667 -0.017000 0.221667 215 213 201 0.045692 2.000000 2.000000 0.002901 
-0.467667 -0.012333 0.419667 68 70 56 -0.007245 6.000000 6.000000 0.003831 
0.004333 -0.084000 0.387667 191 193 172 0.003366 2.000000 2.000000 0.009446 
0.411667 0.329667 0.396000 184 181 176 -0.044237 2.000000 2.000000 0.027687 
0.618000 -0.405667 0.250333 132 102 52 -0.009509 6.000000 6.000000 0.006536 
0.008000 -0.135333 0.739333 184 179 159 -0.001109 2.000000 2.000000 0.003773 
0.357667 -0.787667 0.002333 131 133 96 -0.025906 1.000000 1.000000 0.011188 
-0.372000 -0.576667 0.324333 43 42 37 -0.003417 12.000000 12.000000 0.006735 
0.331000 0.264000 -0.001000 44 41 34 -0.021142 1.000000 1.000000 0.003892 
0.781000 0.191000 0.140667 142 126 100 -0.130811 12.000000 12.000000 0.006476 
0.104333 0.073333 0.154667 167 124 45 0.079457 12.000000 7.000000 0.012837 
-0.446333 0.282667 0.095667 122 96 63 -0.028553 6.000000 6.000000 0.011546 
0.950333 0.032333 0.249333 75 65 53 -0.023067 7.000000 7.000000 0.049311 
0.051333 0.055000 0.000333 126 129 102 -0.059051 1.000000 1.000000 0.005788 
0.407333 0.312333 0.046333 20 20 20 -0.011221 9.000000 9.000000 0.006916 
0.125000 0.043000 0.908667 112 108 96 -0.014993 0.000000 0.000000 0.000864 
-0.395667 -0.661000 0.000667 11 11 9 -0.001147 1.000000 1.000000 0.017291 
0.617667 0.459667 0.167667 215 218 207 -0.104078 7.000000 7.000000 0.002603 
0.652000 0.043667 0.000000 135 139 116 -0.034752 1.000000 1.000000 0.003392 
-0.380667 0.104000 0.904000 104 97 81 -0.008031 0.000000 0.000000 0.008792 
-0.462000 -0.143333 0.414000 206 201 181 0.022921 12.000000 12.000000 0.001327 
0.123333 0.469333 0.799667 105 103 88 -0.034507 12.000000 5.000000 0.002253 
0.277333 0.743667 0.316667 158 153 134 -0.184282 4.000000 2.000000 0.006053 
-0.276000 -0.800333 0.086333 38 30 19 -0.004002 7.000000 7.000000 0.008671 
-0.915000 -0.068667 0.173000 171 171 137 -0.107373 2.000000 2.000000 0.007855 
-0.141000 0.329333 0.716333 181 170 148 -0.022464 2.000000 2.000000 0.001257 
-0.055667 0.077000 0.896000 108 99 84 -0.010734 0.000000 2.000000 0.008108 
0.495333 -0.353667 0.762667 52 57 76 0.000599 10.000000 12.000000 0.009700 
0.326000 0.331333 0.819333 86 119 152 -0.009513 12.000000 12.000000 0.003632 
0.007333 -0.271667 0.625333 190 189 161 0.008881 12.000000 2.000000 0.002617 
0.473000 -0.590333 0.133333 210 180 146 -0.056329 10.000000 10.000000 0.010334 
0.058333 0.337333 0.548000 216 218 207 -0.032454 2.000000 5.000000 0.008945 
-0.134333 0.324667 0.393333 184 186 173 0.007248 11.000000 11.000000 0.000341 
0.152333 -0.328333 0.415667 94 67 48 0.005888 10.000000 10.000000 0.011326 
-0.222000 0.324667 0.518667 166 168 157 -0.026346 11.000000 11.000000 0.000326 
0.537333 -0.562000 0.583667 50 36 25 0.014661 10.000000 10.000000 0.011985 
0.478333 -0.621667 0.014667 199 160 105 -0.034431 10.000000 10.000000 0.005267 
0.280667 -0.064333 0.207667 184 178 162 -0.019828 8.000000 8.000000 0.013283 
0.053333 -0.360667 0.905667 128 118 91 -0.015966 0.000000 0.000000 0.002242 
-0.801667 0.386667 0.401667 143 134 101 -0.020454 2.000000 2.000000 0.011409 
-0.315667 0.332333 0.738667 156 152 140 -0.019057 2.000000 2.000000 0.001678 
0.605667 0.090667 0.166667 145 148 129 -0.044375 12.000000 12.000000 0.012426 
-0.397667 -0.411000 0.314000 114 114 102 0.029088 12.000000 12.000000 0.018003 
0.077333 -0.524667 0.001000 141 141 117 -0.010138 1.000000 1.000000 0.000105 
-0.461667 -0.659333 0.478000 131 130 99 0.021338 12.000000 12.000000 0.007322 
0.404333 0.241000 -0.001333 25 24 20 -0.012698 1.000000 1.000000 0.008848 
0.337333 -0.067333 0.241333 145 145 135 -0.050209 8.000000 8.000000 0.006708 
-0.464333 -0.433000 0.529000 205 210 206 0.167892 12.000000 12.000000 0.000432 
-0.205667 -0.954333 0.038667 41 42 36 -0.045684 10.000000 10.000000 0.013082 
0.106333 -0.143000 0.115333 36 38 37 0.002224 12.000000 12.000000 0.014514 
-0.466667 0.236667 0.726333 89 95 85 -0.010834 6.000000 6.000000 0.007539 
0.575000 -0.670667 0.024000 60 48 26 -0.049760 10.000000 2.000000 0.009064 
-0.069333 -0.808000 0.199000 18 20 15 0.003137 8.000000 8.000000 0.017888 
0.710667 -0.115333 0.013333 93 73 49 -0.078965 1.000000 7.000000 0.008441 
0.713333 -0.115000 0.014333 100 78 55 -0.071048 7.000000 7.000000 0.009286 
-0.459667 -0.083667 0.007000 80 101 82 -0.056883 1.000000 2.000000 0.016549 
-0.141667 -0.827333 0.002333 154 155 121 -0.016960 1.000000 1.000000 0.006186 
0.444000 -0.109667 0.154000 203 204 186 0.199117 12.000000 8.000000 0.010429 
0.461000 0.708333 0.194667 199 193 179 -0.068161 2.000000 2.000000 0.016904 
0.574000 -0.699667 0.032000 79 58 39 -0.032345 10.000000 2.000000 0.010341 
-0.168333 0.328000 0.161000 186 180 164 -0.034739 2.000000 2.000000 0.001774 
0.364000 -0.276667 0.000667 177 177 149 -0.013746 1.000000 1.000000 0.002031 
0.841667 0.223333 0.423667 225 114 84 -0.032088 6.000000 12.000000 0.005578 
0.484333 -0.089000 0.001000 55 52 45 -0.080603 1.000000 1.000000 0.002885 
0.448000 0.330333 0.473333 193 190 175 -0.003811 2.000000 2.000000 0.000291 
0.210667 -0.195333 -0.000333 171 171 147 -0.032643 1.000000 1.000000 0.000971 
-0.422667 -0.014667 -0.001000 132 137 105 -0.063464 1.000000 1.000000 0.006396 
0.749333 -0.407667 0.464333 127 98 54 0.012224 10.000000 10.000000 0.010047 
0.082333 -0.148333 0.353667 173 168 138 0.031241 12.000000 12.000000 0.009452 
-0.002667 -0.080667 0.313333 188 188 160 -0.021217 2.000000 2.000000 0.005063 
0.393667 -0.796000 0.214000 161 115 56 -0.005625 12.000000 7.000000 0.005713 
0.671000 -0.212333 0.001333 48 43 37 -0.039491 1.000000 1.000000 0.001621 
0.078667 -0.305667 0.908333 85 84 92 -0.009760 0.000000 0.000000 0.001433 
0.504667 -0.021333 0.154333 216 216 204 -0.119434 8.000000 8.000000 0.008000 
0.395333 0.306667 0.021000 34 38 39 -0.017815 9.000000 9.000000 0.011230 
0.845667 -0.058667 0.129667 216 216 206 0.183926 2.000000 2.000000 0.001726 
0.010000 -0.130333 0.252000 168 167 149 -0.017541 2.000000 2.000000 0.013902 
0.798000 -0.216667 0.001000 108 105 86 -0.036518 1.000000 1.000000 0.000626 
0.130667 -0.891333 0.002333 150 147 116 -0.024165 1.000000 1.000000 0.000763 
0.314333 -0.071333 0.246000 179 184 144 -0.033326 8.000000 8.000000 0.006611 
0.316333 -0.067333 0.267000 90 90 80 -0.007650 8.000000 8.000000 0.007031 
0.165667 0.061000 0.907000 29 26 21 -0.005136 0.000000 0.000000 0.001098 
-0.484000 0.279333 0.158000 142 162 135 -0.039552 6.000000 6.000000 0.012510 
-0.349000 0.325667 0.404333 171 168 163 -0.023585 11.000000 11.000000 0.004572 
-0.234667 -0.233333 0.174333 32 32 20 0.029355 7.000000 12.000000 0.016725 
0.017667 0.048000 0.113333 182 180 159 0.182205 12.000000 12.000000 0.012328 
0.574000 -0.319333 0.436667 130 96 59 0.018697 10.000000 10.000000 0.013774 
0.224000 0.262667 0.133333 45 46 41 0.023102 12.000000 9.000000 0.007880 
0.146000 0.509333 0.382667 196 203 187 -0.034788 2.000000 5.000000 0.000203 
0.519667 -0.479333 0.046333 56 44 32 -0.054523 10.000000 10.000000 0.012842 
0.470667 -0.658333 0.354000 191 155 123 -0.023940 10.000000 10.000000 0.014202 
0.364000 0.220333 0.141000 123 126 119 0.003380 12.000000 9.000000 0.012238 
0.585667 0.205333 0.166333 115 116 108 -0.010297 12.000000 7.000000 0.012417 
-0.247667 0.082000 0.038667 150 119 55 -0.105819 6.000000 6.000000 0.009713 
0.357333 -0.152333 0.906000 127 118 111 0.000117 0.000000 0.000000 0.000792 
-0.441000 0.240000 0.523667 151 115 65 -0.028988 6.000000 6.000000 0.009394 
-0.000333 0.187000 0.885000 116 106 94 -0.009031 2.000000 2.000000 0.012567 
0.164333 0.552000 0.709333 159 160 142 -0.067005 12.000000 5.000000 0.000133 
0.251000 0.256667 0.252000 192 189 184 -0.029868 7.000000 12.000000 0.007307 
0.158000 -0.336000 0.700000 57 41 25 -0.001094 10.000000 10.000000 0.014047 
0.337333 -0.077667 0.001000 152 150 125 -0.088821 1.000000 1.000000 0.012398 
0.811000 -0.103000 0.002333 102 98 69 -0.081002 1.000000 1.000000 0.005055 
0.491333 -0.402667 0.314667 40 31 22 -0.018800 10.000000 10.000000 0.009230 
-0.860000 -0.068333 0.264333 163 153 117 -0.097571 2.000000 2.000000 0.007645 
-0.024000 -0.536667 0.000667 172 172 146 -0.023491 1.000000 1.000000 0.000152 
0.469333 -0.669000 0.233000 142 115 60 -0.026164 10.000000 10.000000 0.017885 
-0.145667 0.082333 0.903667 97 90 82 -0.008472 0.000000 0.000000 0.002039 
0.985000 -0.022333 0.003000 126 126 98 -0.012006 1.000000 1.000000 0.004487 
0.885333 -0.284667 0.000333 134 130 105 -0.030229 1.000000 1.000000 0.006739 
-0.020000 -0.878667 0.014000 23 22 17 -0.042512 8.000000 8.000000 0.010255 
0.524000 0.156667 0.003667 124 124 100 -0.023575 1.000000 1.000000 0.002932 
0.746000 0.331000 0.538333 185 173 149 -0.014518 2.000000 2.000000 0.002279 
-0.801000 0.386333 0.457000 140 132 95 -0.052771 2.000000 2.000000 0.010755 
0.762667 0.117000 0.014333 196 200 186 0.002807 1.000000 12.000000 0.012305 
-0.125000 0.148667 0.071667 43 44 38 -0.083802 12.000000 12.000000 0.005358 
0.258333 0.344333 0.135000 50 50 48 -0.020891 9.000000 9.000000 0.009839 
0.717333 -0.174000 0.251000 201 159 75 0.030759 7.000000 7.000000 0.000551 
0.474000 0.546667 0.147000 12 10 11 -0.001845 12.000000 9.000000 0.019095 
-0.049333 -0.846667 0.225333 114 117 100 -0.011861 8.000000 8.000000 0.005048 
0.499667 -0.718333 0.380333 216 218 215 0.032910 10.000000 10.000000 0.020720 
0.437667 -0.041333 0.221667 191 203 167 0.020052 8.000000 8.000000 0.009680 
0.029333 0.272000 0.822667 108 105 86 -0.014367 2.000000 5.000000 0.004307 
-0.289000 -0.161000 0.904667 103 101 86 -0.010583 0.000000 0.000000 0.000232 
-0.040667 0.139667 0.625333 185 188 169 -0.020148 12.000000 5.000000 0.000351 
0.521000 -0.092333 0.120667 95 87 64 0.030763 8.000000 8.000000 0.014870 
0.324667 -0.700000 0.001667 155 161 127 -0.042670 1.000000 1.000000 0.001734 
0.451000 -0.360667 0.771667 187 192 169 -0.030929 10.000000 12.000000 0.003757 
-0.315667 0.146333 0.019000 157 117 55 -0.055959 6.000000 6.000000 0.008818 
0.154333 -0.323667 0.240667 85 73 49 -0.009351 10.000000 10.000000 0.018873 
0.464000 -0.465000 0.115667 160 124 64 -0.006925 10.000000 10.000000 0.010491 
0.019667 0.255667 0.456333 145 151 125 -0.014998 2.000000 5.000000 0.002859 
0.304333 0.328333 0.659667 133 89 78 -0.008614 12.000000 12.000000 0.000386 
0.821000 0.240333 0.187333 190 191 185 0.186470 12.000000 12.000000 0.004938 
0.538667 -0.479333 0.306000 54 42 30 -0.011210 10.000000 10.000000 0.012327 
0.477000 -0.480333 0.437333 145 106 41 0.032029 10.000000 10.000000 0.018345 
-0.167667 -0.034667 0.000667 155 155 119 0.055359 1.000000 1.000000 0.002608 
-0.401333 0.326333 0.559667 148 145 136 -0.021893 11.000000 11.000000 0.007523 
0.410667 -0.607667 0.001333 146 147 115 -0.063705 1.000000 1.000000 0.001266 
-0.301000 0.063333 0.000333 145 144 113 -0.051877 1.000000 1.000000 0.006216 
-0.367667 -0.614000 0.291000 209 207 184 0.054071 12.000000 12.000000 0.014437 
0.230667 0.681000 0.384333 198 200 179 -0.055556 2.000000 5.000000 0.001434 
-0.477000 -0.007333 0.517667 16 21 17 -0.000143 6.000000 6.000000 0.008467 
0.045667 0.304667 0.277333 201 203 190 -0.068053 2.000000 5.000000 0.007532 
-0.422000 0.049333 0.755000 103 98 79 -0.012977 12.000000 12.000000 0.008613 
0.771333 -0.422333 0.468333 164 172 151 -0.056345 10.000000 11.000000 0.021613 
0.899333 0.402667 0.021667 7 9 8 -0.007051 1.000000 8.000000 0.011510 
0.297000 0.781667 0.138333 144 141 136 -0.144138 4.000000 2.000000 0.023761 
0.364000 0.020000 0.186333 13 13 11 -0.006806 8.000000 8.000000 0.010794 
0.136000 0.493333 0.526667 117 125 110 -0.100036 12.000000 5.000000 0.000092 
0.006000 -0.264000 0.774000 173 164 147 -0.013779 2.000000 2.000000 0.000630 
0.238667 0.004667 0.182333 58 60 49 -0.040435 12.000000 9.000000 0.013370 
0.372000 -0.233000 -0.000667 59 56 47 -0.028906 1.000000 1.000000 0.000864 
0.569333 -0.665333 0.304667 84 68 53 -0.032567 10.000000 10.000000 0.009597 
-0.322667 -0.432000 0.002333 12 12 10 -0.003465 1.000000 1.000000 0.001296 
0.291000 0.329000 0.403000 197 192 170 -0.051973 2.000000 2.000000 0.010924 
0.352333 0.899667 0.002000 27 28 23 -0.008340 1.000000 1.000000 0.013166 
-0.352333 -0.346333 0.262333 109 127 89 -0.033152 12.000000 12.000000 0.013875 
-0.089333 0.004000 0.157000 188 185 166 -0.107834 2.000000 2.000000 0.008216 
0.138000 0.323333 0.448667 182 188 174 -0.081981 2.000000 11.000000 0.002801 
0.242667 0.279667 0.044333 9 9 7 -0.017316 9.000000 10.000000 0.021852 
0.537333 -0.356000 0.549333 207 200 192 0.016788 10.000000 10.000000 0.016951 
-0.466000 -0.167000 0.113000 183 183 173 -0.037288 2.000000 2.000000 0.007604 
-0.262000 -0.525667 0.252667 52 56 55 0.022041 7.000000 7.000000 0.004125 
-0.436000 0.235000 0.387667 165 122 43 0.059961 6.000000 6.000000 0.010666 
0.135000 -0.053000 0.906667 91 90 98 -0.011149 0.000000 0.000000 0.005617 
0.045333 0.106333 0.221000 172 169 162 -0.058139 12.000000 9.000000 0.007830 
0.637667 -0.401667 0.603000 86 58 34 -0.011574 10.000000 10.000000 0.009141 
0.487000 0.182333 -0.002000 28 29 23 -0.014868 1.000000 1.000000 0.001788 
0.285333 0.127333 0.147000 74 75 67 -0.025062 12.000000 9.000000 0.007221 
-0.442000 0.241000 0.502333 151 115 65 -0.025309 6.000000 6.000000 0.010379 
0.138000 0.074667 0.161667 68 68 58 0.013810 12.000000 10.000000 0.008255 
0.467000 -0.724333 0.498333 192 156 120 0.058502 10.000000 10.000000 0.020762 
-0.405000 -0.025000 0.795000 169 164 145 -0.010143 12.000000 12.000000 0.013122 
-0.376000 -0.306000 0.374667 61 58 53 -0.003000 12.000000 12.000000 0.010783 
0.205333 0.099667 0.905000 94 90 78 -0.009126 0.000000 0.000000 0.002608 
-0.370667 0.172333 0.253667 174 126 60 -0.037590 6.000000 6.000000 0.005986 
0.010667 -0.092333 0.434000 190 192 170 0.032256 2.000000 2.000000 0.008830 
0.417333 -0.177000 0.347333 199 201 190 -0.032152 12.000000 8.000000 0.007370 
-0.348667 0.326333 0.663333 149 148 143 -0.014790 11.000000 11.000000 0.003026 
-0.095667 -0.893667 0.139667 149 152 123 -0.016738 8.000000 8.000000 0.008735 
0.139333 -0.611667 0.001333 146 149 118 -0.029553 1.000000 1.000000 0.000158 
0.525000 -0.335333 0.772333 187 177 128 -0.022091 10.000000 12.000000 0.011024 
0.531667 -0.426667 0.382000 118 84 39 -0.062199 10.000000 6.000000 0.010544 
-0.047333 0.083333 0.146333 71 69 57 -0.030419 12.000000 12.000000 0.011483 
0.117667 0.328333 0.663000 174 176 163 -0.024421 2.000000 11.000000 0.003329 
0.004667 0.327000 0.679333 179 176 159 -0.023773 2.000000 11.000000 0.004733 
0.164667 0.054333 0.001333 131 131 103 -0.064750 1.000000 1.000000 0.015186 
0.011333 -0.422667 0.491333 155 153 141 -0.012721 12.000000 2.000000 0.008707 
0.346000 0.329000 0.007000 25 23 24 -0.010567 1.000000 2.000000 0.009694 
0.311000 0.775333 0.510000 189 188 167 -0.208899 4.000000 2.000000 0.007733 
0.083667 -0.200000 0.362667 72 62 61 -0.002788 12.000000 12.000000 0.005386 
0.518667 -0.458000 0.573333 112 79 44 -0.002782 10.000000 10.000000 0.012977 
0.385333 -0.075333 0.907333 91 85 71 -0.006504 0.000000 0.000000 0.000623 
0.052000 -0.139333 -0.000333 161 165 140 -0.054754 1.000000 1.000000 0.004774 
0.331000 0.766000 0.307000 158 155 136 -0.099707 4.000000 2.000000 0.004309 
0.284000 0.786000 0.210333 58 57 55 -0.091300 10.000000 2.000000 0.014266 
0.377667 -0.322333 0.280333 167 164 147 -0.025251 10.000000 10.000000 0.006856 
0.211000 0.075000 0.027000 55 55 45 -0.048379 12.000000 10.000000 0.020034 
0.677333 -0.312667 0.005000 55 52 43 -0.054207 1.000000 1.000000 0.006896 
-0.108333 -0.783000 0.002333 126 126 92 -0.026446 1.000000 1.000000 0.001445 
0.720333 0.617333 0.034000 137 124 116 0.013928 12.000000 10.000000 0.019093 
0.217333 0.189667 0.910667 80 81 75 -0.006297 0.000000 0.000000 0.004056 
-0.627667 -0.704667 0.144333 170 133 80 -0.027459 6.000000 6.000000 0.000784 
0.746333 -0.386000 0.511333 130 97 54 -0.031403 10.000000 10.000000 0.009935 
-0.458000 -0.205667 0.487000 213 204 187 -0.012644 12.000000 12.000000 0.001652 
-0.404667 0.289000 0.793000 140 132 119 -0.017710 2.000000 12.000000 0.012758 
-0.095667 -0.002000 0.583000 185 183 160 -0.015700 2.000000 2.000000 0.007083 
-0.399000 -0.292333 0.319667 68 65 60 -0.009213 12.000000 12.000000 0.007670 
0.744000 0.260000 0.154667 20 19 17 -0.002830 12.000000 7.000000 0.014194 
-0.447333 0.323667 0.443667 162 162 152 -0.032949 11.000000 11.000000 0.013559 
-0.035667 0.326667 0.671333 164 167 148 -0.022978 2.000000 11.000000 0.005468 
0.766667 0.419667 0.166667 91 93 79 -0.056006 12.000000 7.000000 0.002340 
0.250667 -0.320000 0.611000 182 144 107 -0.010227 10.000000 10.000000 0.008053 
0.264667 0.747333 0.294000 180 175 153 -0.087017 4.000000 2.000000 0.007943 
-0.162333 0.331000 0.880000 118 112 98 -0.016023 2.000000 2.000000 0.013681 
-0.298333 -0.731000 0.040333 12 12 12 0.002710 12.000000 12.000000 0.014237 
0.413000 -0.795000 0.173667 147 104 59 -0.007911 12.000000 7.000000 0.004328 
0.184000 -0.016667 0.908667 115 111 84 -0.014361 0.000000 0.000000 0.001459 
0.078333 0.375000 0.498000 205 209 194 -0.012937 2.000000 5.000000 0.002407 
0.638333 0.220667 0.167333 138 142 141 0.011322 12.000000 7.000000 0.006045 
0.631000 0.684333 0.259333 104 98 98 -0.025046 12.000000 10.000000 0.020366 
0.351667 -0.082000 0.179000 173 121 82 -0.107242 8.000000 8.000000 0.012897 
0.617333 0.437667 0.167333 215 220 213 -0.091294 7.000000 7.000000 0.002809 
-0.388333 0.331000 0.805667 140 132 119 -0.029356 2.000000 2.000000 0.008870 
-0.141667 0.145667 0.904000 92 88 79 -0.009464 0.000000 0.000000 0.000605 
-0.465000 0.275333 0.730667 117 119 108 -0.011068 6.000000 2.000000 0.009743 
0.734000 0.285333 0.174000 125 164 179 -0.093190 8.000000 7.000000 0.012824 
0.412333 0.330333 0.465667 193 190 183 0.005057 2.000000 2.000000 0.001444 
0.282000 -0.069333 0.001333 153 158 136 -0.045784 1.000000 1.000000 0.004327 
-0.068667 -0.343667 0.000667 173 172 151 -0.018295 1.000000 1.000000 0.000188 
-0.227667 -0.203333 0.154333 121 91 57 -0.023897 7.000000 7.000000 0.008840 
-0.273667 0.323333 0.376667 176 181 177 -0.036535 11.000000 11.000000 0.000955 
0.465667 -0.392667 0.370667 27 22 16 -0.012398 10.000000 10.000000 0.022336 
-0.854667 0.165333 0.000333 100 99 78 -0.021709 1.000000 1.000000 0.000091 
0.534667 -0.532333 0.521667 78 76 64 0.005308 10.000000 10.000000 0.008083 
0.205667 -0.156667 0.907667 119 110 95 -0.022365 0.000000 0.000000 0.001616 
0.331667 0.287000 0.146000 58 59 53 -0.008888 9.000000 9.000000 0.005280 
0.059667 -0.029333 0.907000 126 119 90 -0.014034 0.000000 0.000000 0.002673 
0.013667 -0.392667 0.000333 164 163 143 -0.019499 1.000000 1.000000 0.000162 
-0.336000 -0.465333 0.252000 164 156 153 0.009807 7.000000 7.000000 0.002729 
-0.415667 0.298667 0.816333 118 112 90 -0.015423 2.000000 12.000000 0.015678 
-0.242667 0.067333 0.204000 190 146 71 -0.111456 6.000000 6.000000 0.006730 
0.965667 0.026333 0.249000 217 176 120 0.011467 7.000000 7.000000 0.058938 
0.873333 0.269667 0.020667 42 44 39 -0.063671 1.000000 8.000000 0.008597 
0.277667 -0.442667 0.001000 153 156 129 -0.050520 1.000000 1.000000 0.000211 
0.245000 0.263333 0.285333 148 128 103 -0.015974 12.000000 12.000000 0.011559 
-0.398333 -0.298667 0.342333 65 64 60 -0.039635 12.000000 12.000000 0.006758 
-0.248333 0.082667 0.026000 153 119 56 -0.073204 6.000000 6.000000 0.007503 
-0.435667 0.235333 0.286667 180 135 54 -0.036738 6.000000 6.000000 0.013669 
-0.408667 0.332000 0.848667 117 110 92 -0.019314 2.000000 2.000000 0.024998 
0.406000 -0.325333 0.491667 182 182 170 0.008448 10.000000 10.000000 0.004510 
0.553667 -0.343667 0.282000 163 159 132 -0.034751 10.000000 10.000000 0.012276 
-0.435667 0.189333 0.753667 100 92 71 -0.005789 12.000000 12.000000 0.012563 
0.064333 -0.943667 0.002333 143 144 104 -0.023767 1.000000 1.000000 0.002536 
-0.905333 0.206667 0.000667 104 103 73 -0.016887 1.000000 1.000000 0.000090 
0.502000 0.326000 0.530667 133 148 181 -0.008244 12.000000 12.000000 0.001419 
0.486667 -0.532667 0.174000 227 227 227 -0.065252 10.000000 10.000000 0.014641 
0.177333 0.075667 0.047333 70 71 63 -0.029889 12.000000 10.000000 0.003880 
0.333667 -0.418667 0.416333 94 71 40 -0.132213 10.000000 10.000000 0.032800 
-0.153667 0.237667 -0.001000 105 106 90 -0.024871 1.000000 1.000000 0.006582 
0.038000 0.293667 0.496667 203 206 189 -0.013100 2.000000 5.000000 0.004141 
0.670667 0.499667 0.167667 228 229 224 -0.186568 12.000000 7.000000 0.004998 
-0.355667 0.328667 0.113000 182 176 160 -0.051612 2.000000 2.000000 0.010665 
0.095667 0.406667 0.284667 204 208 185 -0.015553 2.000000 5.000000 0.012186 
-0.149000 -0.698000 0.001667 142 148 112 -0.021389 1.000000 1.000000 0.000556 
-0.269000 0.291333 0.008333 77 74 59 -0.033021 1.000000 12.000000 0.008940 
0.698000 -0.018667 0.248667 214 177 106 -0.137467 7.000000 7.000000 0.001346 
0.531333 -0.475667 0.657667 81 60 41 0.010765 10.000000 10.000000 0.010839 
0.537667 -0.425667 0.500667 227 194 141 0.051492 10.000000 6.000000 0.010904 
-0.069000 -0.048333 0.263667 189 187 162 -0.017253 2.000000 2.000000 0.005860 
-0.467333 0.033000 0.715333 62 68 56 -0.012673 6.000000 6.000000 0.006541 
-0.201667 0.331000 0.825000 143 135 122 -0.011973 2.000000 2.000000 0.006544 
-0.359000 -0.288667 0.334333 35 34 32 0.009973 12.000000 12.000000 0.014838 
0.165667 0.328333 0.373333 199 196 177 -0.027954 2.000000 2.000000 0.006807 
0.485000 -0.640333 0.505000 109 91 81 0.017503 10.000000 10.000000 0.016500 
0.344667 -0.626333 0.001333 141 144 117 -0.039814 1.000000 1.000000 0.000038 
-0.062667 -0.899333 0.005333 32 32 30 -0.060285 8.000000 1.000000 0.010228 
-0.007000 -0.921667 0.036667 22 20 21 -0.018108 8.000000 8.000000 0.012909 
-0.142000 -0.729667 0.001667 141 142 110 -0.018211 1.000000 1.000000 0.000551 
0.211333 0.329333 0.482333 192 192 180 -0.010162 2.000000 2.000000 0.000734 
0.170667 -0.108333 0.000333 167 166 135 -0.024853 1.000000 1.000000 0.004086 
0.406333 0.077667 0.001000 129 135 101 -0.027756 1.000000 1.000000 0.003253 
0.482667 -0.480667 0.470667 66 53 36 -0.006024 10.000000 10.000000 0.014003 
-0.382667 -0.427000 0.262667 239 243 246 0.147313 7.000000 12.000000 0.007859 
0.397667 0.571000 0.186000 245 120 100 -0.012779 9.000000 9.000000 0.002907 
-0.227333 -0.317000 0.000667 123 126 109 -0.029704 1.000000 1.000000 0.011343 
0.168667 -0.320667 0.620333 160 120 68 -0.011936 10.000000 10.000000 0.013345 
0.924667 -0.171667 0.001667 150 151 120 -0.001663 1.000000 1.000000 0.001879 
-0.013000 -0.076333 0.724333 187 182 162 -0.016237 2.000000 2.000000 0.003637 
-0.477667 0.278333 0.409333 103 118 115 -0.022494 6.000000 6.000000 0.020121 
-0.002333 0.251000 0.001000 121 121 83 -0.030604 1.000000 1.000000 0.005315 
-0.072000 -0.031667 -0.000333 171 174 145 -0.033610 1.000000 1.000000 0.001085 
0.431333 -0.371333 0.001333 165 165 139 -0.059613 1.000000 1.000000 0.001067 
0.251000 -0.383667 0.605000 87 62 42 0.019328 10.000000 10.000000 0.006496 
-0.466000 -0.266000 0.577667 187 195 182 0.032094 12.000000 12.000000 0.001004 
0.916667 0.353000 0.033000 25 24 22 -0.025146 1.000000 8.000000 0.016638 
0.778333 -0.426667 0.269000 129 126 117 -0.048514 6.000000 2.000000 0.014143 
0.004333 0.221667 0.303000 192 193 175 -0.084908 2.000000 5.000000 0.005687 
0.071000 0.840667 0.510333 74 81 89 -0.020471 12.000000 12.000000 0.014085 
0.319000 0.329000 0.389667 205 203 188 0.028453 2.000000 2.000000 0.022211 
0.717333 -0.259667 0.251333 214 210 199 0.016756 7.000000 7.000000 0.003951 
0.357333 -0.324333 0.713667 118 94 68 -0.010709 10.000000 10.000000 0.010050 
0.841667 0.239667 0.414000 168 153 134 -0.001873 12.000000 12.000000 0.007312 
-0.077333 0.033333 0.473333 185 187 165 0.021513 2.000000 2.000000 0.003313 
-0.462333 -0.672333 0.459000 116 111 79 0.001119 12.000000 12.000000 0.008813 
0.464667 -0.340000 0.698000 48 31 21 -0.005997 10.000000 10.000000 0.010135 
0.794333 0.134667 0.168000 217 213 202 0.044839 12.000000 12.000000 0.008568 
-0.464667 0.308000 0.728333 137 134 115 -0.029241 2.000000 2.000000 0.012003 
0.524000 0.326333 0.531333 63 90 157 -0.003963 12.000000 12.000000 0.000779 
0.600667 -0.407000 0.189333 135 104 57 -0.017488 6.000000 6.000000 0.007425 
0.466333 -0.760000 0.335333 161 127 89 -0.008516 10.000000 10.000000 0.013898 
0.097667 0.328333 0.273667 200 195 166 -0.085489 2.000000 2.000000 0.009393 
0.115333 0.324667 0.496000 175 167 148 -0.039520 2.000000 11.000000 0.004156 
0.359333 -0.054000 0.167667 181 113 66 -0.114362 8.000000 8.000000 0.010512 
0.778000 -0.370333 0.001000 128 130 108 -0.013332 1.000000 1.000000 0.007895 
0.468667 0.330667 0.754333 169 164 158 -0.001471 12.000000 2.000000 0.001084 
0.138667 0.302000 0.247667 190 166 130 -0.093367 7.000000 7.000000 0.006400 
0.324333 0.329000 0.001333 22 22 20 -0.011002 1.000000 2.000000 0.013796 
0.024333 0.143000 0.907000 111 103 90 -0.008975 0.000000 0.000000 0.005747 
0.337000 -0.794333 0.152667 139 98 42 -0.017195 12.000000 7.000000 0.012262 
0.524333 -0.456333 0.422000 107 78 36 -0.023605 10.000000 10.000000 0.012326 
0.379667 0.694333 0.156333 82 54 33 -0.017837 9.000000 9.000000 0.012843 
0.637333 0.327000 0.682667 49 57 78 -0.022286 12.000000 12.000000 0.001006 
-0.609333 -0.703333 0.168667 163 126 73 -0.027342 6.000000 6.000000 0.000628 
0.537667 -0.390000 0.603667 85 59 34 -0.001601 10.000000 10.000000 0.015547 
0.383333 0.284333 0.020667 33 32 27 -0.020587 9.000000 9.000000 0.014413 
0.452000 0.331333 0.521667 190 187 168 -0.003302 2.000000 2.000000 0.002524 
0.564333 -0.609333 0.415667 83 60 42 0.009114 10.000000 10.000000 0.016691 
0.086000 0.003000 0.000667 161 160 129 -0.050129 1.000000 1.000000 0.003113 
0.067333 -0.224667 0.468000 176 109 66 -0.002475 12.000000 12.000000 0.006730 
0.104000 -0.166333 0.951333 248 251 255 -0.050771 12.000000 12.000000 0.007447 
-0.462333 0.100000 0.722000 90 93 82 -0.002392 6.000000 6.000000 0.007450 
0.517333 -0.630667 0.248667 218 216 204 -0.034503 10.000000 10.000000 0.010087 
0.721000 0.330667 0.523667 186 179 153 -0.036010 2.000000 2.000000 0.000333 
0.155667 -0.345000 0.695000 25 24 22 0.000303 10.000000 10.000000 0.013141 
0.966667 -0.130333 0.002333 146 141 109 -0.010295 1.000000 1.000000 0.002833 
0.173667 0.183333 0.247333 193 165 125 0.052111 7.000000 7.000000 0.007039 
0.247000 0.393667 0.153333 26 26 26 -0.007351 9.000000 9.000000 0.005775 
0.671333 0.636000 0.251667 167 137 103 -0.027562 12.000000 10.000000 0.008044 
0.644667 -0.339333 0.340667 65 48 38 -0.012057 10.000000 10.000000 0.008698 
0.301333 0.161000 -0.003000 49 49 41 -0.039250 1.000000 1.000000 0.005293 
0.825667 0.358667 0.027667 27 27 25 -0.009030 1.000000 8.000000 0.039544 
0.401333 0.269333 0.113333 24 24 24 -0.006013 9.000000 9.000000 0.004525 
-0.008333 -0.078000 0.541000 189 190 172 -0.005261 2.000000 2.000000 0.009543 
-0.229000 0.328667 0.234333 192 190 175 -0.041708 2.000000 2.000000 0.000402 
0.460667 -0.016333 0.142333 40 41 35 -0.001639 8.000000 8.000000 0.016135 
0.066667 -0.312667 0.322667 75 71 72 -0.019087 12.000000 12.000000 0.011406 
0.364667 -0.318667 0.450667 224 226 215 0.003534 10.000000 10.000000 0.002616 
-0.103667 -0.027000 0.480000 188 187 167 0.005986 2.000000 2.000000 0.009172 
0.352333 -0.348667 0.380333 197 201 200 0.051774 10.000000 10.000000 0.019312 
-0.405667 -0.446000 0.770000 194 191 182 0.019704 12.000000 12.000000 0.007359 
-0.274333 0.080333 0.641000 121 91 53 -0.000508 6.000000 6.000000 0.002304 
0.257667 0.256333 0.373667 146 130 104 -0.024492 12.000000 12.000000 0.009941 
0.537000 -0.425667 0.308667 136 115 70 -0.060490 10.000000 6.000000 0.010642 
0.777333 0.191667 0.122000 116 102 76 0.089293 12.000000 12.000000 0.006467 
-0.995333 -0.059667 0.000333 99 113 96 -0.027539 2.000000 1.000000 0.012816 
-0.156000 -0.517000 0.301667 34 34 32 0.002724 12.000000 12.000000 0.012757 
0.647000 -0.320667 0.359333 134 120 107 -0.058765 10.000000 10.000000 0.011321 
0.384667 0.733000 0.157000 180 178 166 -0.123248 4.000000 2.000000 0.010823 
0.585000 0.330000 0.434000 196 191 162 0.014697 2.000000 2.000000 0.001640 
0.506333 -0.753333 0.065000 60 48 34 -0.019180 10.000000 10.000000 0.010676 
0.691000 -0.148333 0.032333 48 35 19 -0.082052 7.000000 7.000000 0.015350 
0.164667 -0.333000 0.000000 181 182 164 -0.050526 1.000000 1.000000 0.000162 
-0.078000 0.033333 0.778000 162 153 122 -0.009025 2.000000 2.000000 0.004990 
0.747000 0.292000 0.061333 56 52 40 -0.027528 12.000000 12.000000 0.008472 
-0.022000 0.170333 0.367667 185 188 177 -0.043210 2.000000 5.000000 0.000385 
0.097667 0.418000 0.640000 205 207 193 -0.037109 12.000000 5.000000 0.001500 
0.584667 0.082000 0.090333 154 156 134 -0.026744 12.000000 12.000000 0.003404 
-0.015667 -0.075000 0.648000 188 186 171 -0.019287 2.000000 2.000000 0.005013 
